ply
format ascii 1.0
element vertex 419
property float x
property float y
property float z
property float nx
property float ny
property float nz
end_header
0.0013911724090576172 0.2529183030128479 -0.42233699560165405 7.323887274424123e-08 1.0 -1.1605116014834493e-06
0.0033323466777801514 0.25291818380355835 -0.5216619968414307 7.323887274424123e-08 1.0 -1.1605116014834493e-06
-0.01719483733177185 0.25291815400123596 -0.5545927882194519 7.323887274424123e-08 1.0 -1.1605116014834493e-06
-0.04379883408546448 0.25291815400123596 -0.5695666670799255 7.323887274424123e-08 1.0 -1.1605116014834493e-06
-0.01842142641544342 0.2758904695510864 -0.6499550938606262 0.466373085975647 -0.02099321037530899 0.884338915348053
-0.10778257250785828 0.2529182732105255 -0.4740828275680542 7.323887274424123e-08 1.0 -1.1605116014834493e-06
-0.09733554720878601 0.2529182434082031 -0.5049539804458618 7.323887274424123e-08 1.0 -1.1605116014834493e-06
-0.07209509611129761 0.2529181241989136 -0.5795397758483887 7.323887274424123e-08 1.0 -1.1605116014834493e-06
-0.061694979667663574 0.2759968340396881 -0.6271314024925232 0.466373085975647 -0.02099321037530899 0.884338915348053
-0.12715545296669006 0.25291821360588074 -0.5104247331619263 7.323887274424123e-08 1.0 -1.1605116014834493e-06
-0.10479691624641418 0.25291815400123596 -0.5764944553375244 7.323887274424123e-08 1.0 -1.1605116014834493e-06
-0.13752436637878418 0.27596813440322876 -0.5871420502662659 0.466373085975647 -0.02099321037530899 0.884338915348053
-0.1670830249786377 0.27576562762260437 -0.5715585350990295 0.466373085975647 -0.02099321037530899 0.884338915348053
-0.0267040878534317 0.2529183030128479 -0.43290388584136963 7.323887274424123e-08 1.0 -1.1605116014834493e-06
-0.06070449948310852 0.2529183030128479 -0.42602115869522095 7.323887274424123e-08 1.0 -1.1605116014834493e-06
-0.015320181846618652 0.3058140277862549 -0.6508802175521851 0.466373085975647 -0.02099321037530899 0.884338915348053
-0.054900139570236206 0.3058372139930725 -0.6300064325332642 0.466373085975647 -0.02099321037530899 0.884338915348053
-0.09948083758354187 0.30597299337387085 -0.6064927577972412 0.466373085975647 -0.02099321037530899 0.884338915348053
-0.12991490960121155 0.3057901859283447 -0.5904471278190613 0.466373085975647 -0.02099321037530899 0.884338915348053
-0.1580009162425995 0.2529181241989136 -0.6064537763595581 7.323887274424123e-08 1.0 -1.1605116014834493e-06
-0.01590028405189514 0.3358204960823059 -0.6498619914054871 0.466373085975647 -0.02099321037530899 0.884338915348053
-0.05528132617473602 0.3358391523361206 -0.6290932297706604 0.466373085975647 -0.02099321037530899 0.884338915348053
-0.09546932578086853 0.3358760476112366 -0.607898473739624 0.466373085975647 -0.02099321037530899 0.884338915348053
-0.1292704939842224 0.33576905727386475 -0.5900753140449524 0.466373085975647 -0.02099321037530899 0.884338915348053
-0.1538461446762085 0.3358404040336609 -0.6187312006950378 -0.4480442702770233 0.45802974700927734 0.7677662968635559
-0.016620025038719177 0.36583009362220764 -0.6487700343132019 0.466373085975647 -0.02099321037530899 0.884338915348053
-0.055321186780929565 0.36583346128463745 -0.6283602118492126 0.466373085975647 -0.02099321037530899 0.884338915348053
-0.09535470604896545 0.36586683988571167 -0.607246994972229 0.466373085975647 -0.02099321037530899 0.884338915348053
-0.12849408388137817 0.365744948387146 -0.5897731781005859 0.466373085975647 -0.02099321037530899 0.884338915348053
-0.14994201064109802 0.3658403754234314 -0.6302679777145386 -0.8391040563583374 0.12889426946640015 0.5284796953201294
-0.016728684306144714 0.39582592248916626 -0.6480007171630859 0.466373085975647 -0.02099321037530899 0.884338915348053
-0.05621655285358429 0.39584702253341675 -0.627175509929657 0.466373085975647 -0.02099321037530899 0.884338915348053
-0.09411454200744629 0.3958323001861572 -0.6071895956993103 0.466373085975647 -0.02099321037530899 0.884338915348053
-0.12799185514450073 0.3957270383834839 -0.5893262028694153 0.466373085975647 -0.02099321037530899 0.884338915348053
-0.1495290994644165 0.3958404064178467 -0.6314881443977356 -0.8572620749473572 0.009137007407844067 0.5147992372512817
-0.060019537806510925 0.2529182434082031 -0.48523515462875366 7.323887274424123e-08 1.0 -1.1605116014834493e-06
-0.08057574927806854 0.2529182434082031 -0.4921915531158447 7.323887274424123e-08 1.0 -1.1605116014834493e-06
-0.19432872533798218 0.2529182434082031 -0.49901527166366577 7.323887274424123e-08 1.0 -1.1605116014834493e-06
0.001006990671157837 0.2529183030128479 -0.43291211128234863 7.323887274424123e-08 1.0 -1.1605116014834493e-06
0.010620534420013428 0.2529182732105255 -0.46132999658584595 7.323887274424123e-08 1.0 -1.1605116014834493e-06
0.02171291410923004 0.2529182434082031 -0.48924750089645386 7.323887274424123e-08 1.0 -1.1605116014834493e-06
-0.0006761997938156128 0.25291818380355835 -0.5284954309463501 7.323887274424123e-08 1.0 -1.1605116014834493e-06
-0.0968504250049591 0.2529182434082031 -0.4976990222930908 7.323887274424123e-08 1.0 -1.1605116014834493e-06
-0.04037773609161377 0.2758817672729492 -0.6383762359619141 0.466373085975647 -0.02099321037530899 0.884338915348053
-0.12508395314216614 0.2529182434082031 -0.5072535276412964 7.323887274424123e-08 1.0 -1.1605116014834493e-06
-0.11052501201629639 0.25291818380355835 -0.5339979529380798 7.323887274424123e-08 1.0 -1.1605116014834493e-06
-0.10548862814903259 0.25291815400123596 -0.5639647841453552 7.323887274424123e-08 1.0 -1.1605116014834493e-06
-0.08451786637306213 0.2529181241989136 -0.5885394215583801 7.323887274424123e-08 1.0 -1.1605116014834493e-06
-0.07011935114860535 0.2760527729988098 -0.6226873993873596 0.466373085975647 -0.02099321037530899 0.884338915348053
-0.14374861121177673 0.2529182434082031 -0.48189854621887207 7.323887274424123e-08 1.0 -1.1605116014834493e-06
-0.12877744436264038 0.2529182434082031 -0.5085034370422363 7.323887274424123e-08 1.0 -1.1605116014834493e-06
-0.15568006038665771 0.2757427990436554 -0.5775726437568665 0.466373085975647 -0.02099321037530899 0.884338915348053
-0.1859739124774933 0.2759000062942505 -0.5615928173065186 0.466373085975647 -0.02099321037530899 0.884338915348053
-0.042278602719306946 0.30581367015838623 -0.6366632580757141 0.466373085975647 -0.02099321037530899 0.884338915348053
-0.07523453235626221 0.3059043288230896 -0.6192810535430908 0.466373085975647 -0.02099321037530899 0.884338915348053
-0.11004561185836792 0.30594855546951294 -0.6009218096733093 0.466373085975647 -0.02099321037530899 0.884338915348053
-0.19480067491531372 0.305658757686615 -0.5562314391136169 0.466373085975647 -0.02099321037530899 0.884338915348053
-0.16655272245407104 0.305450439453125 -0.5711334943771362 0.466373085975647 -0.02099321037530899 0.884338915348053
-0.041038885712623596 0.3358241021633148 -0.6366046667098999 0.466373085975647 -0.02099321037530899 0.884338915348053
-0.07645127177238464 0.33585333824157715 -0.6179285049438477 0.466373085975647 -0.02099321037530899 0.884338915348053
-0.11274862289428711 0.3358604311943054 -0.5987862348556519 0.466373085975647 -0.02099321037530899 0.884338915348053
-0.14085611701011658 0.3358404040336609 -0.6076047420501709 -0.7400895357131958 0.29101282358169556 0.6062828898429871
-0.18479964137077332 0.3358404040336609 -0.5908042788505554 0.6035016179084778 0.5399180054664612 0.5867490172386169
-0.1642325222492218 0.3358404040336609 -0.6155154705047607 0.603258490562439 0.5167284607887268 0.6075119376182556
-0.04049046337604523 0.36581724882125854 -0.6361818313598633 0.466373085975647 -0.02099321037530899 0.884338915348053
-0.07588861882686615 0.36584681272506714 -0.6175132393836975 0.466373085975647 -0.02099321037530899 0.884338915348053
-0.11180105805397034 0.365863561630249 -0.5985737442970276 0.466373085975647 -0.02099321037530899 0.884338915348053
-0.12436357140541077 0.3655495047569275 -0.5919561386108398 0.466373085975647 -0.02099321037530899 0.884338915348053
-0.15786156058311462 0.3658403754234314 -0.6450307369232178 -0.8151145577430725 0.45519527792930603 0.3583090901374817
-0.03900091350078583 0.39583390951156616 -0.6362547874450684 0.466373085975647 -0.02099321037530899 0.884338915348053
-0.07544568181037903 0.39583733677864075 -0.6170348525047302 0.466373085975647 -0.02099321037530899 0.884338915348053
-0.11176180839538574 0.3958439826965332 -0.5978826284408569 0.466373085975647 -0.02099321037530899 0.884338915348053
-0.12445318698883057 0.3955266773700714 -0.59119713306427 0.466373085975647 -0.02099321037530899 0.884338915348053
-0.15340125560760498 0.3958404064178467 -0.6435213088989258 -0.9706292748451233 0.01481376588344574 0.2401234358549118
-0.16221249103546143 0.3958404064178467 -0.6781744360923767 -0.961371123790741 0.10067372024059296 0.256184458732605
-0.07107160985469818 0.2529182434082031 -0.48897528648376465 7.323887274424123e-08 1.0 -1.1605116014834493e-06
-0.19435587525367737 0.2529182434082031 -0.4990244507789612 7.323887274424123e-08 1.0 -1.1605116014834493e-06
0.004562661051750183 0.2529183030128479 -0.43170881271362305 7.323887274424123e-08 1.0 -1.1605116014834493e-06
0.014179185032844543 0.2529182732105255 -0.46012574434280396 7.323887274424123e-08 1.0 -1.1605116014834493e-06
0.023795709013938904 0.2529182434082031 -0.48854267597198486 7.323887274424123e-08 1.0 -1.1605116014834493e-06
0.033412232995033264 0.25291821360588074 -0.5169596076011658 7.323887274424123e-08 1.0 -1.1605116014834493e-06
0.04302876442670822 0.25291818380355835 -0.5453765988349915 7.323887274424123e-08 1.0 -1.1605116014834493e-06
0.052645280957221985 0.2529181241989136 -0.5737934708595276 7.323887274424123e-08 1.0 -1.1605116014834493e-06
0.06226181983947754 0.2529180943965912 -0.6022104620933533 7.323887274424123e-08 1.0 -1.1605116014834493e-06
0.004995331168174744 0.25291818380355835 -0.5265761017799377 7.323887274424123e-08 1.0 -1.1605116014834493e-06
0.014611870050430298 0.25291815400123596 -0.5549930930137634 7.323887274424123e-08 1.0 -1.1605116014834493e-06
0.024228379130363464 0.2529181241989136 -0.5834099650382996 7.323887274424123e-08 1.0 -1.1605116014834493e-06
0.03384491801261902 0.2529180943965912 -0.6118269562721252 7.323887274424123e-08 1.0 -1.1605116014834493e-06
-0.01380506157875061 0.25291815400123596 -0.5646095871925354 7.323887274424123e-08 1.0 -1.1605116014834493e-06
-0.004188552498817444 0.2529181241989136 -0.5930265188217163 7.323887274424123e-08 1.0 -1.1605116014834493e-06
0.00542798638343811 0.2529180943965912 -0.621443510055542 7.323887274424123e-08 1.0 -1.1605116014834493e-06
-0.07107160985469818 0.2529182434082031 -0.48897528648376465 7.323887274424123e-08 1.0 -1.1605116014834493e-06
-0.042222023010253906 0.25291815400123596 -0.5742261409759521 7.323887274424123e-08 1.0 -1.1605116014834493e-06
-0.03260551393032074 0.2529181241989136 -0.6026430726051331 7.323887274424123e-08 1.0 -1.1605116014834493e-06
-0.029843464493751526 0.27057889103889465 -0.64405757188797 0.466373085975647 -0.02099321037530899 0.884338915348053
-0.09948855638504028 0.2529182434082031 -0.4985918402671814 7.323887274424123e-08 1.0 -1.1605116014834493e-06
-0.07063895463943481 0.2529181241989136 -0.5838426351547241 7.323887274424123e-08 1.0 -1.1605116014834493e-06
-0.06732003390789032 0.2744761109352112 -0.6242010593414307 0.466373085975647 -0.02099321037530899 0.884338915348053
-0.11828893423080444 0.25291818380355835 -0.536625325679779 7.323887274424123e-08 1.0 -1.1605116014834493e-06
-0.10867244005203247 0.25291815400123596 -0.5650421977043152 7.323887274424123e-08 1.0 -1.1605116014834493e-06
-0.16593891382217407 0.2529182434082031 -0.4894079566001892 7.323887274424123e-08 1.0 -1.1605116014834493e-06
-0.1563224196434021 0.25291821360588074 -0.5178248882293701 7.323887274424123e-08 1.0 -1.1605116014834493e-06
-0.14670586585998535 0.25291818380355835 -0.546241819858551 7.323887274424123e-08 1.0 -1.1605116014834493e-06
-0.14236482977867126 0.27290239930152893 -0.584662139415741 0.466373085975647 -0.02099321037530899 0.884338915348053
-0.1847393810749054 0.25291821360588074 -0.5274413824081421 7.323887274424123e-08 1.0 -1.1605116014834493e-06
-0.17987656593322754 0.27320396900177 -0.5648723840713501 0.466373085975647 -0.02099321037530899 0.884338915348053
-0.023854225873947144 0.2529183030128479 -0.44132524728775024 7.323887274424123e-08 1.0 -1.1605116014834493e-06
-0.014237746596336365 0.2529182732105255 -0.46974217891693115 7.323887274424123e-08 1.0 -1.1605116014834493e-06
-0.0046212077140808105 0.2529182434082031 -0.49815917015075684 7.323887274424123e-08 1.0 -1.1605116014834493e-06
-0.05227118730545044 0.2529183030128479 -0.450941801071167 7.323887274424123e-08 1.0 -1.1605116014834493e-06
-0.04265467822551727 0.2529182434082031 -0.4793587327003479 7.323887274424123e-08 1.0 -1.1605116014834493e-06
-0.03303813934326172 0.25291821360588074 -0.5077756643295288 7.323887274424123e-08 1.0 -1.1605116014834493e-06
-0.02342161536216736 0.25291818380355835 -0.5361925959587097 7.323887274424123e-08 1.0 -1.1605116014834493e-06
-0.08068814873695374 0.2529182732105255 -0.46055829524993896 7.323887274424123e-08 1.0 -1.1605116014834493e-06
-0.07107163965702057 0.2529182434082031 -0.4889752268791199 7.323887274424123e-08 1.0 -1.1605116014834493e-06
-0.061455100774765015 0.25291821360588074 -0.5173922181129456 7.323887274424123e-08 1.0 -1.1605116014834493e-06
-0.051838576793670654 0.25291818380355835 -0.5458090901374817 7.323887274424123e-08 1.0 -1.1605116014834493e-06
-0.10910505056381226 0.2529182732105255 -0.4701749086380005 7.323887274424123e-08 1.0 -1.1605116014834493e-06
-0.08987203240394592 0.25291818380355835 -0.5270087122917175 7.323887274424123e-08 1.0 -1.1605116014834493e-06
-0.08025550842285156 0.25291818380355835 -0.5554256439208984 7.323887274424123e-08 1.0 -1.1605116014834493e-06
-0.13752198219299316 0.2529182434082031 -0.47979140281677246 7.323887274424123e-08 1.0 -1.1605116014834493e-06
-0.1279054880142212 0.2529182434082031 -0.5082083344459534 7.323887274424123e-08 1.0 -1.1605116014834493e-06
-0.10467827320098877 0.29044288396835327 -0.6041203737258911 0.466373085975647 -0.02099321037530899 0.884338915348053
-0.1605505347251892 0.2810487449169159 -0.5748780965805054 0.466373085975647 -0.02099321037530899 0.884338915348053
-0.15588977932929993 0.2529180943965912 -0.6126921772956848 7.323887274424123e-08 1.0 -1.1605116014834493e-06
0.259008526802063 0.4258403778076172 -0.43488800525665283 -0.3045100271701813 0.661246120929718 0.6855853199958801
0.2719724178314209 0.4258403778076172 -0.4731963872909546 0.00881265476346016 0.9833449125289917 -0.1815352588891983
0.23213478922843933 0.4258403778076172 -0.4490647315979004 -0.2710758149623871 0.6961950659751892 0.6647031307220459
0.2345975637435913 0.4258403778076172 -0.4563422203063965 -0.09164769947528839 0.9936715960502625 -0.06494211405515671
0.25046446919441223 0.4258403778076172 -0.47517865896224976 -0.021833594888448715 0.998812198638916 -0.04355967789888382
0.22952315211296082 0.4258403778076172 -0.45059406757354736 -0.2882818579673767 0.8015541434288025 0.5238364338874817
0.2607477307319641 0.42642641067504883 -0.4400274157524109 -0.02105606719851494 0.9997467994689941 0.007940053939819336
0.27036428451538086 0.426291286945343 -0.4684443473815918 -0.014511349610984325 0.999748170375824 -0.017115488648414612
0.2323307991027832 0.42590388655662537 -0.44964390993118286 -0.016637271270155907 0.9998025894165039 -0.010864070616662502
0.25377193093299866 0.2529180645942688 -0.6065916419029236 7.323887274424123e-08 1.0 -1.1605116014834493e-06
0.3106427490711212 0.2529180943965912 -0.5874676704406738 7.323887274424123e-08 1.0 -1.1605116014834493e-06
0.2872845530509949 0.2529180645942688 -0.6120328307151794 7.323887274424123e-08 1.0 -1.1605116014834493e-06
0.2612308859825134 0.2529180645942688 -0.6286327838897705 7.323887274424123e-08 1.0 -1.1605116014834493e-06
0.2744758427143097 0.252918004989624 -0.6677718758583069 7.323887274424123e-08 1.0 -1.1605116014834493e-06
0.3131706416606903 0.2529178857803345 -0.7821153998374939 7.323887274424123e-08 1.0 -1.1605116014834493e-06
0.22693081200122833 0.2529180645942688 -0.6208646297454834 7.323887274424123e-08 1.0 -1.1605116014834493e-06
0.2828676700592041 0.2529178857803345 -0.7861586809158325 7.323887274424123e-08 1.0 -1.1605116014834493e-06
0.2548503279685974 0.2529178559780121 -0.7969560027122498 7.323887274424123e-08 1.0 -1.1605116014834493e-06
0.19953583180904388 0.2753688097000122 -0.7264099717140198 -0.27858227491378784 -0.09207416325807571 0.9559885859489441
0.1853991150856018 0.2529178857803345 -0.7789046764373779 7.323887274424123e-08 1.0 -1.1605116014834493e-06
0.16670747101306915 0.2529178559780121 -0.8172596096992493 7.323887274424123e-08 1.0 -1.1605116014834493e-06
0.3525594472885132 0.25291794538497925 -0.7113319635391235 7.323887274424123e-08 1.0 -1.1605116014834493e-06
0.36882978677749634 0.2529178857803345 -0.7594109177589417 7.323887274424123e-08 1.0 -1.1605116014834493e-06
0.3299207091331482 0.25291791558265686 -0.738023042678833 7.323887274424123e-08 1.0 -1.1605116014834493e-06
0.25718599557876587 0.2529180645942688 -0.6166801452636719 7.323887274424123e-08 1.0 -1.1605116014834493e-06
0.2830922603607178 0.30967092514038086 -0.6987573504447937 -0.27858227491378784 -0.09207416325807571 0.9559885859489441
0.22819623351097107 0.2529180645942688 -0.6246039867401123 7.323887274424123e-08 1.0 -1.1605116014834493e-06
0.25493741035461426 0.30824971199035645 -0.7070987820625305 -0.27858227491378784 -0.09207416325807571 0.9559885859489441
0.27386829257011414 0.25291791558265686 -0.7595654129981995 7.323887274424123e-08 1.0 -1.1605116014834493e-06
0.2496969997882843 0.2529178857803345 -0.7817279100418091 7.323887274424123e-08 1.0 -1.1605116014834493e-06
0.2217564880847931 0.2529178857803345 -0.792752206325531 7.323887274424123e-08 1.0 -1.1605116014834493e-06
0.20007868111133575 0.2529178261756897 -0.8222829103469849 7.323887274424123e-08 1.0 -1.1605116014834493e-06
0.35474246740341187 0.3358404040336609 -0.7177827954292297 -0.27021241188049316 0.3604435920715332 0.892785370349884
0.35749581456184387 0.3358404040336609 -0.7259190082550049 0.38139307498931885 0.738165020942688 -0.5564635396003723
0.3260136842727661 0.3358404040336609 -0.7264779210090637 -0.41272804141044617 0.039581749588251114 0.9099938869476318
0.33116215467453003 0.3358404040336609 -0.7416917085647583 0.31596410274505615 0.7885963320732117 -0.5275249481201172
0.25305312871932983 0.3358404040336609 -0.604467511177063 0.026584522798657417 -0.28140968084335327 0.9592194557189941
0.28253379464149475 0.33897125720977783 -0.6960980892181396 -0.27858227491378784 -0.09207416325807571 0.9559885859489441
0.2970639169216156 0.3358404040336609 -0.734519898891449 -0.10968535393476486 -0.5622119903564453 0.8196870684623718
0.22514690458774567 0.3358404040336609 -0.6155931949615479 -0.8017289638519287 -0.25022560358047485 0.5427871346473694
0.254045307636261 0.33825403451919556 -0.7044689059257507 -0.27858227491378784 -0.09207416325807571 0.9559885859489441
0.26830029487609863 0.3358404040336609 -0.7431119680404663 -0.3829211890697479 -0.578068196773529 0.7205613255500793
0.24561060965061188 0.3358404040336609 -0.7696526050567627 -0.5512422323226929 -0.40711212158203125 0.7282799482345581
0.22284406423568726 0.3358404040336609 -0.7959660887718201 -0.733473539352417 -0.4229767322540283 0.5320783257484436
0.24960029125213623 0.3658403754234314 -0.5942643284797668 -0.26425108313560486 -0.561538815498352 0.7841207981109619
0.2808628976345062 0.37061917781829834 -0.6935369372367859 -0.27858227491378784 -0.09207416325807571 0.9559885859489441
0.2836753726005554 0.36468398571014404 -0.6932889819145203 -0.27858227491378784 -0.09207416325807571 0.9559885859489441
0.3024480938911438 0.3658403754234314 -0.750430166721344 0.4383206367492676 -0.7497056126594543 -0.49579885601997375
0.22246527671813965 0.3658403754234314 -0.607668936252594 -0.4435134530067444 -0.558012843132019 0.7013683319091797
0.252417653799057 0.36981067061424255 -0.7019038796424866 -0.27858227491378784 -0.09207416325807571 0.9559885859489441
0.25506800413131714 0.3642175793647766 -0.701670229434967 -0.27858227491378784 -0.09207416325807571 0.9559885859489441
0.2728578746318817 0.3658403754234314 -0.7565796375274658 0.3245907425880432 -0.7826307415962219 -0.5311591029167175
0.2378450632095337 0.3658403754234314 -0.7467052936553955 -0.2991848289966583 -0.8141294717788696 0.49767613410949707
0.25301653146743774 0.3658403754234314 -0.7915371656417847 0.7443590760231018 0.577395498752594 -0.335475891828537
0.20783670246601105 0.3658403754234314 -0.7516191601753235 -0.5009769201278687 -0.7718786597251892 0.39144018292427063
0.22029441595077515 0.3658403754234314 -0.7884318232536316 0.3205508589744568 -1.2209090627379737e-08 -0.9472312927246094
0.23012444376945496 0.3658403754234314 -0.81747967004776 -0.2533549666404724 0.612625002861023 0.7486667037010193
0.1922035664319992 0.3658403754234314 -0.7990118861198425 -0.652121365070343 -0.6285520195960999 0.4238634407520294
0.1989467591047287 0.3658403754234314 -0.818938136100769 0.5386828780174255 -0.42155182361602783 -0.7294620275497437
0.17355069518089294 0.3658403754234314 -0.8374813795089722 -0.24733498692512512 -0.6361157894134521 0.7308775782585144
0.34019970893859863 0.3951953649520874 -0.6738786697387695 -0.27858227491378784 -0.09207416325807571 0.9559885859489441
0.30978846549987793 0.3985357880592346 -0.6824190616607666 -0.27858227491378784 -0.09207416325807571 0.9559885859489441
0.2225770801305771 0.4000685214996338 -0.7076854109764099 -0.27858227491378784 -0.09207416325807571 0.9559885859489441
0.19613167643547058 0.39503979682922363 -0.7158761024475098 -0.27858227491378784 -0.09207416325807571 0.9559885859489441
0.1758202314376831 0.3958404064178467 -0.7505990266799927 -0.408738374710083 -0.6521196365356445 0.6384927034378052
0.14850936830043793 0.3958404064178467 -0.763484001159668 0.6061428189277649 -0.6595820784568787 0.44445735216140747
0.26273903250694275 0.2529181241989136 -0.5660385489463806 7.323887274424123e-08 1.0 -1.1605116014834493e-06
0.257840633392334 0.2529180943965912 -0.5993674397468567 7.323887274424123e-08 1.0 -1.1605116014834493e-06
0.23471039533615112 0.2529181241989136 -0.5755236744880676 7.323887274424123e-08 1.0 -1.1605116014834493e-06
0.24008969962596893 0.2529180943965912 -0.6053744554519653 7.323887274424123e-08 1.0 -1.1605116014834493e-06
0.2942889332771301 0.27729272842407227 -0.6986129879951477 -0.27858227491378784 -0.09207416325807571 0.9559885859489441
0.290627121925354 0.274524450302124 -0.6999467015266418 -0.27858227491378784 -0.09207416325807571 0.9559885859489441
0.3262155055999756 0.25291794538497925 -0.7345851063728333 7.323887274424123e-08 1.0 -1.1605116014834493e-06
0.3226088881492615 0.2529178857803345 -0.7674768567085266 7.323887274424123e-08 1.0 -1.1605116014834493e-06
0.21831077337265015 0.2529180347919464 -0.6444159150123596 7.323887274424123e-08 1.0 -1.1605116014834493e-06
0.2150503247976303 0.252918004989624 -0.6771905422210693 7.323887274424123e-08 1.0 -1.1605116014834493e-06
0.20258042216300964 0.27416470646858215 -0.7256388068199158 -0.27858227491378784 -0.09207416325807571 0.9559885859489441
0.22530683875083923 0.2529178857803345 -0.7687334418296814 7.323887274424123e-08 1.0 -1.1605116014834493e-06
0.24536314606666565 0.2529178857803345 -0.7936174273490906 7.323887274424123e-08 1.0 -1.1605116014834493e-06
0.19713851809501648 0.27414247393608093 -0.727226734161377 -0.27858227491378784 -0.09207416325807571 0.9559885859489441
0.18297012150287628 0.2529178857803345 -0.7830604910850525 7.323887274424123e-08 1.0 -1.1605116014834493e-06
0.12676239013671875 0.27548760175704956 -0.726530134677887 0.466373085975647 -0.02099321037530899 0.884338915348053
0.13522696495056152 0.25291791558265686 -0.7675458788871765 7.323887274424123e-08 1.0 -1.1605116014834493e-06
0.15063945949077606 0.2529178857803345 -0.7940014600753784 7.323887274424123e-08 1.0 -1.1605116014834493e-06
0.34753143787384033 0.25291794538497925 -0.7273715734481812 7.323887274424123e-08 1.0 -1.1605116014834493e-06
0.2799361050128937 0.2529180645942688 -0.6235613226890564 7.323887274424123e-08 1.0 -1.1605116014834493e-06
0.2864258289337158 0.3097626864910126 -0.6977770328521729 -0.27858227491378784 -0.09207416325807571 0.9559885859489441
0.31499266624450684 0.2529178857803345 -0.7700541615486145 7.323887274424123e-08 1.0 -1.1605116014834493e-06
0.3054152727127075 0.2529178857803345 -0.7732952237129211 7.323887274424123e-08 1.0 -1.1605116014834493e-06
0.22568093240261078 0.2529180347919464 -0.6419217586517334 7.323887274424123e-08 1.0 -1.1605116014834493e-06
0.23870503902435303 0.30956771969795227 -0.7117019891738892 -0.27858227491378784 -0.09207416325807571 0.9559885859489441
0.21475419402122498 0.2529178559780121 -0.8039757013320923 7.323887274424123e-08 1.0 -1.1605116014834493e-06
0.1153554916381836 0.25291794538497925 -0.7425993084907532 7.323887274424123e-08 1.0 -1.1605116014834493e-06
0.13023124635219574 0.25291791558265686 -0.7692364454269409 7.323887274424123e-08 1.0 -1.1605116014834493e-06
0.1435074806213379 0.2529178857803345 -0.7964149117469788 7.323887274424123e-08 1.0 -1.1605116014834493e-06
0.14589279890060425 0.2529178261756897 -0.8272789716720581 7.323887274424123e-08 1.0 -1.1605116014834493e-06
0.27916419506073 0.3358404040336609 -0.6238226294517517 0.8856858611106873 0.05834638327360153 0.46060433983802795
0.2894408702850342 0.3395238518714905 -0.6940320730209351 -0.27858227491378784 -0.09207416325807571 0.9559885859489441
0.2400970160961151 0.34207552671432495 -0.7081654667854309 -0.27858227491378784 -0.09207416325807571 0.9559885859489441
0.24036896228790283 0.33932334184646606 -0.7083513140678406 -0.27858227491378784 -0.09207416325807571 0.9559885859489441
0.24561472237110138 0.3358404040336609 -0.7618610858917236 -0.582029402256012 -0.5922693610191345 0.5571882724761963
0.21697019040584564 0.3358404040336609 -0.8032258152961731 -0.9406364560127258 -0.2969258427619934 0.16443249583244324
0.10279431939125061 0.33576178550720215 -0.7124593257904053 0.466373085975647 -0.02099321037530899 0.884338915348053
0.11542536318302155 0.3358404040336609 -0.7425757050514221 0.8887210488319397 -0.008427530527114868 0.4583708345890045
0.12929114699363708 0.3358404040336609 -0.769554615020752 0.8903301954269409 0.009716268628835678 0.4552116096019745
0.14246727526187897 0.3358404040336609 -0.796766996383667 0.9485027194023132 0.028813838958740234 0.315455824136734
0.14933089911937714 0.3358404040336609 -0.8261155486106873 0.9994797706604004 -0.0018765225540846586 0.03219595551490784
0.2570957839488983 0.3658403754234314 -0.5996195077896118 0.8319971561431885 -0.10614520311355591 0.544530987739563
0.2910344898700714 0.3720324635505676 -0.6904366612434387 -0.27858227491378784 -0.09207416325807571 0.9559885859489441
0.29932236671447754 0.3658403754234314 -0.7120146751403809 0.5320897102355957 -0.474413126707077 0.7012935876846313
0.31104934215545654 0.3658403754234314 -0.7397174835205078 0.8676772713661194 -0.3732130229473114 0.3284023106098175
0.22070199251174927 0.3658403754234314 -0.6119354367256165 -0.9763950109481812 -0.15909254550933838 0.14608974754810333
0.2302168309688568 0.371783971786499 -0.7081832885742188 -0.27858227491378784 -0.09207416325807571 0.9559885859489441
0.2370956540107727 0.3658403754234314 -0.7330726981163025 -0.6676473021507263 -0.595426619052887 0.44689393043518066
0.25332191586494446 0.3658403754234314 -0.7909241318702698 0.6273470520973206 -0.6921660900115967 -0.3568498492240906
0.24973030388355255 0.3658403754234314 -0.7921395301818848 -0.7314742207527161 0.5008667707443237 -0.46268555521965027
0.2035297304391861 0.3658403754234314 -0.7761029601097107 -0.7083398103713989 -0.6531330943107605 0.2677161693572998
0.21218277513980865 0.3658403754234314 -0.804845929145813 0.940264105796814 0.2756652534008026 0.19978031516075134
0.18234726786613464 0.3658403754234314 -0.8149425387382507 -0.7670280337333679 -0.5277018547058105 0.36496397852897644
0.10514600574970245 0.36580002307891846 -0.7129864692687988 0.466373085975647 -0.02099321037530899 0.884338915348053
0.11605364084243774 0.3658403754234314 -0.7423630952835083 0.8527202606201172 -0.19575029611587524 0.48430365324020386
0.12910592555999756 0.3658403754234314 -0.7696173191070557 0.8642839789390564 -0.2576015889644623 0.4320354759693146
0.1429734230041504 0.3658403754234314 -0.7965956926345825 0.8845808506011963 -0.3132079243659973 0.34556835889816284
0.14642415940761566 0.3658403754234314 -0.8270992040634155 0.8107419610023499 -0.4134015738964081 0.41448360681533813
0.31482619047164917 0.39637190103530884 -0.6811593770980835 -0.27858227491378784 -0.09207416325807571 0.9559885859489441
0.2503281831741333 0.3958404064178467 -0.570238471031189 0.8516921401023865 0.024053750559687614 0.5234900116920471
0.2616614103317261 0.3958404064178467 -0.5980744361877441 0.9389438033103943 0.16360487043857574 0.3026847541332245
0.28626421093940735 0.4017617702484131 -0.6889634728431702 -0.27858227491378784 -0.09207416325807571 0.9559885859489441
0.30877894163131714 0.39910048246383667 -0.6826587915420532 -0.27858227491378784 -0.09207416325807571 0.9559885859489441
0.21347060799598694 0.3958404064178467 -0.582711398601532 -0.987755537033081 -0.008675585500895977 -0.15576858818531036
0.21596106886863708 0.3958404064178467 -0.6135398149490356 -0.9971502423286438 0.0736020877957344 0.016555139794945717
0.22949878871440887 0.40152984857559204 -0.705527663230896 -0.27858227491378784 -0.09207416325807571 0.9559885859489441
0.21760907769203186 0.3987279534339905 -0.7092622518539429 -0.27858227491378784 -0.09207416325807571 0.9559885859489441
0.20361891388893127 0.39591747522354126 -0.7136098146438599 -0.27858227491378784 -0.09207416325807571 0.9559885859489441
0.1505928337574005 0.3958404064178467 -0.7623459696769714 -0.16171225905418396 -0.9380391240119934 0.3064829409122467
0.1060086339712143 0.39580103754997253 -0.7127291560173035 0.466373085975647 -0.02099321037530899 0.884338915348053
0.12969516217708588 0.39547866582870483 -0.7252283096313477 0.466373085975647 -0.02099321037530899 0.884338915348053
0.14809662103652954 0.3958404064178467 -0.7631906867027283 0.6938998699188232 -0.4381459951400757 0.5714288353919983
0.24237996339797974 0.21740956604480743 -0.5729281902313232 0.005587214138358831 0.8801776766777039 0.4746114909648895
0.2519964873790741 0.2529180943965912 -0.6013451218605042 7.323887274424123e-08 1.0 -1.1605116014834493e-06
0.29921385645866394 0.25291815400123596 -0.5536951422691345 7.323887274424123e-08 1.0 -1.1605116014834493e-06
0.3088303804397583 0.2529181241989136 -0.5821120738983154 7.323887274424123e-08 1.0 -1.1605116014834493e-06
0.27079689502716064 0.2529181241989136 -0.5633116960525513 7.323887274424123e-08 1.0 -1.1605116014834493e-06
0.2804134488105774 0.2529180943965912 -0.5917286276817322 7.323887274424123e-08 1.0 -1.1605116014834493e-06
0.28084608912467957 0.252918004989624 -0.6865959763526917 7.323887274424123e-08 1.0 -1.1605116014834493e-06
0.28652533888816833 0.27078908681869507 -0.701501727104187 -0.27858227491378784 -0.09207416325807571 0.9559885859489441
0.3000791370868683 0.25291791558265686 -0.7434298396110535 7.323887274424123e-08 1.0 -1.1605116014834493e-06
0.30969566106796265 0.2529178857803345 -0.7718467712402344 7.323887274424123e-08 1.0 -1.1605116014834493e-06
0.21396304666996002 0.2529181241989136 -0.58254474401474 7.323887274424123e-08 1.0 -1.1605116014834493e-06
0.2235795557498932 0.2529180645942688 -0.6109616756439209 7.323887274424123e-08 1.0 -1.1605116014834493e-06
0.26204565167427063 0.25291794538497925 -0.7246294021606445 7.323887274424123e-08 1.0 -1.1605116014834493e-06
0.2716622054576874 0.25291791558265686 -0.7530463933944702 7.323887274424123e-08 1.0 -1.1605116014834493e-06
0.28127872943878174 0.2529178857803345 -0.7814633250236511 7.323887274424123e-08 1.0 -1.1605116014834493e-06
0.18554608523845673 0.2529181241989136 -0.592161238193512 7.323887274424123e-08 1.0 -1.1605116014834493e-06
0.19516262412071228 0.2529180645942688 -0.6205781698226929 7.323887274424123e-08 1.0 -1.1605116014834493e-06
0.20477914810180664 0.2529180347919464 -0.6489951610565186 7.323887274424123e-08 1.0 -1.1605116014834493e-06
0.214395672082901 0.252918004989624 -0.6774120926856995 7.323887274424123e-08 1.0 -1.1605116014834493e-06
0.2277964949607849 0.268716037273407 -0.7188153266906738 -0.27858227491378784 -0.09207416325807571 0.9559885859489441
0.23362872004508972 0.25291794538497925 -0.7342459559440613 7.323887274424123e-08 1.0 -1.1605116014834493e-06
0.24324525892734528 0.25291791558265686 -0.7626628875732422 7.323887274424123e-08 1.0 -1.1605116014834493e-06
0.25286176800727844 0.2529178857803345 -0.7910798192024231 7.323887274424123e-08 1.0 -1.1605116014834493e-06
0.15712915360927582 0.2529180943965912 -0.6017777919769287 7.323887274424123e-08 1.0 -1.1605116014834493e-06
0.16674567759037018 0.2529180645942688 -0.6301947236061096 7.323887274424123e-08 1.0 -1.1605116014834493e-06
0.17636221647262573 0.2529180347919464 -0.6586116552352905 7.323887274424123e-08 1.0 -1.1605116014834493e-06
0.1859787255525589 0.252918004989624 -0.6870285868644714 7.323887274424123e-08 1.0 -1.1605116014834493e-06
0.19885709881782532 0.2750454246997833 -0.726638913154602 -0.27858227491378784 -0.09207416325807571 0.9559885859489441
0.1287122368812561 0.2529180943965912 -0.6113942861557007 7.323887274424123e-08 1.0 -1.1605116014834493e-06
0.13832874596118927 0.2529180645942688 -0.6398112177848816 7.323887274424123e-08 1.0 -1.1605116014834493e-06
0.14794528484344482 0.252918004989624 -0.6682282090187073 7.323887274424123e-08 1.0 -1.1605116014834493e-06
0.157561793923378 0.252918004989624 -0.6966451406478882 7.323887274424123e-08 1.0 -1.1605116014834493e-06
0.16717833280563354 0.25291794538497925 -0.7250620722770691 7.323887274424123e-08 1.0 -1.1605116014834493e-06
0.1767948567867279 0.25291791558265686 -0.75347900390625 7.323887274424123e-08 1.0 -1.1605116014834493e-06
0.1002952829003334 0.2529180645942688 -0.6210108399391174 7.323887274424123e-08 1.0 -1.1605116014834493e-06
0.10991179943084717 0.2529180347919464 -0.6494277715682983 7.323887274424123e-08 1.0 -1.1605116014834493e-06
0.11952833831310272 0.252918004989624 -0.6778447031974792 7.323887274424123e-08 1.0 -1.1605116014834493e-06
0.1291448473930359 0.25291797518730164 -0.7062616348266602 7.323887274424123e-08 1.0 -1.1605116014834493e-06
0.13933688402175903 0.25755083560943604 -0.733587384223938 0.466373085975647 -0.02099321037530899 0.884338915348053
0.1483778953552246 0.25291791558265686 -0.763095498085022 7.323887274424123e-08 1.0 -1.1605116014834493e-06
0.15799443423748016 0.2529178857803345 -0.7915124893188477 7.323887274424123e-08 1.0 -1.1605116014834493e-06
0.3184468746185303 0.2529180645942688 -0.6105290055274963 7.323887274424123e-08 1.0 -1.1605116014834493e-06
0.328063428401947 0.2529180347919464 -0.6389458775520325 7.323887274424123e-08 1.0 -1.1605116014834493e-06
0.3421613574028015 0.29724031686782837 -0.6827413439750671 -0.27858227491378784 -0.09207416325807571 0.9559885859489441
0.34336233139038086 0.2984026372432709 -0.6822794079780579 -0.27858227491378784 -0.09207416325807571 0.9559885859489441
0.29002994298934937 0.2529180645942688 -0.6201454997062683 7.323887274424123e-08 1.0 -1.1605116014834493e-06
0.2996464967727661 0.2529180347919464 -0.6485624313354492 7.323887274424123e-08 1.0 -1.1605116014834493e-06
0.3132321238517761 0.30317509174346924 -0.6905999183654785 -0.27858227491378784 -0.09207416325807571 0.9559885859489441
0.3149259388446808 0.2852870523929596 -0.6918291449546814 -0.27858227491378784 -0.09207416325807571 0.9559885859489441
0.3284960389137268 0.25291794538497925 -0.7338132858276367 7.323887274424123e-08 1.0 -1.1605116014834493e-06
0.28127872943878174 0.2529178857803345 -0.7814633250236511 7.323887274424123e-08 1.0 -1.1605116014834493e-06
0.25286173820495605 0.2529178857803345 -0.7910797595977783 7.323887274424123e-08 1.0 -1.1605116014834493e-06
0.19999654591083527 0.278587281703949 -0.7259657979011536 -0.27858227491378784 -0.09207416325807571 0.9559885859489441
0.21482831239700317 0.2529178857803345 -0.7722793817520142 7.323887274424123e-08 1.0 -1.1605116014834493e-06
0.18641138076782227 0.2529178857803345 -0.7818959355354309 7.323887274424123e-08 1.0 -1.1605116014834493e-06
0.19602790474891663 0.2529178559780121 -0.810312807559967 7.323887274424123e-08 1.0 -1.1605116014834493e-06
0.16761095821857452 0.2529178261756897 -0.8199294209480286 7.323887274424123e-08 1.0 -1.1605116014834493e-06
0.36652952432632446 0.25291791558265686 -0.7526136636734009 7.323887274424123e-08 1.0 -1.1605116014834493e-06
0.3284960687160492 0.25291794538497925 -0.7338132858276367 7.323887274424123e-08 1.0 -1.1605116014834493e-06
0.33811259269714355 0.2529178857803345 -0.7622302174568176 7.323887274424123e-08 1.0 -1.1605116014834493e-06
0.3000791370868683 0.3232421875 -0.7434298396110535 -0.25692135095596313 -0.5051438212394714 0.8239060044288635
0.271662175655365 0.25291791558265686 -0.7530463337898254 7.323887274424123e-08 1.0 -1.1605116014834493e-06
0.3569130003452301 0.3409689664840698 -0.7241967916488647 -0.08405249565839767 0.8870777487754822 0.45390328764915466
0.3284960687160492 0.3442530632019043 -0.7338133454322815 0.49892765283584595 0.37025681138038635 0.7835693955421448
0.2519964873790741 0.3452135920524597 -0.6013451218605042 0.1968214213848114 -0.29772064089775085 0.9341433048248291
0.28212040662765503 0.3458888530731201 -0.6955522894859314 -0.27858227491378784 -0.09207416325807571 0.9559885859489441
0.2904626131057739 0.3583034873008728 -0.7150129079818726 -0.07959344983100891 -0.7089073061943054 0.7007961869239807
0.2235795557498932 0.35143402218818665 -0.6109616756439209 -0.4305002689361572 -0.29943954944610596 0.8514724969863892
0.25290951132774353 0.3627115786075592 -0.702444314956665 -0.27858227491378784 -0.09207416325807571 0.9559885859489441
0.26204565167427063 0.3575552701950073 -0.7246294021606445 -0.3360099494457245 -0.6797730922698975 0.651924729347229
0.24324524402618408 0.34839922189712524 -0.7626628875732422 -0.6519774794578552 -0.564420759677887 0.5063145756721497
0.21482831239700317 0.3521274924278259 -0.7722794413566589 -0.44528090953826904 -0.7519209384918213 0.4861479103565216
0.22444483637809753 0.342981219291687 -0.8006963729858398 0.0 1.0 0.0
0.19602790474891663 0.3478150963783264 -0.8103128671646118 -0.37833651900291443 -0.8513363003730774 -0.36343899369239807
0.34729647636413574 0.3894680440425873 -0.6957798600196838 -0.03111225552856922 -0.9629637598991394 0.26782986521720886
0.3569130003452301 0.38123995065689087 -0.7241967916488647 -0.13971470296382904 -0.9810842275619507 0.13399045169353485
0.36652952432632446 0.3725486695766449 -0.7526137232780457 -0.3559672236442566 -0.9205118417739868 0.16107529401779175
0.3108399510383606 0.3956456780433655 -0.6823909282684326 -0.27858227491378784 -0.09207416325807571 0.9559885859489441
0.31887954473495483 0.38831278681755066 -0.7053963541984558 0.31623467803001404 -0.8638922572135925 0.39202776551246643
0.3284960687160492 0.38068699836730957 -0.7338133454322815 0.20443300902843475 -0.9781215786933899 0.03854132816195488
0.33811259269714355 0.38185492157936096 -0.7622302770614624 -0.1280236691236496 -0.9912996888160706 0.0305770430713892
0.24237996339797974 0.3900168240070343 -0.5729281902313232 -0.05556308105587959 -0.8655773401260376 0.49768322706222534
0.2810244560241699 0.38825300335884094 -0.6917914152145386 -0.27858227491378784 -0.09207416325807571 0.9559885859489441
0.28236454725265503 0.3840392827987671 -0.6918067336082458 -0.27858227491378784 -0.09207416325807571 0.9559885859489441
0.30969566106796265 0.38322165608406067 -0.7718467712402344 0.23071978986263275 -0.8713427186012268 -0.43304771184921265
0.21396303176879883 0.3949359357357025 -0.58254474401474 -0.237970232963562 -0.9199422597885132 0.31157079339027405
0.2524535357952118 0.380337655544281 -0.7008795142173767 -0.27858227491378784 -0.09207416325807571 0.9559885859489441
0.25351276993751526 0.3869803845882416 -0.6999310851097107 -0.27858227491378784 -0.09207416325807571 0.9559885859489441
0.28127872943878174 0.38630157709121704 -0.7814633250236511 0.4046221077442169 -0.7687869071960449 -0.4952249228954315
0.2235092669725418 0.386853963136673 -0.7086865305900574 -0.27858227491378784 -0.09207416325807571 0.9559885859489441
0.2247231900691986 0.3875172734260559 -0.7082688808441162 -0.27858227491378784 -0.09207416325807571 0.9559885859489441
0.23362872004508972 0.36848458647727966 -0.7342459559440613 -0.3052636384963989 -0.8328987956047058 0.4616207182407379
0.2052117884159088 0.37395259737968445 -0.7438624501228333 -0.5180191993713379 -0.760351300239563 0.3918188810348511
0.22444483637809753 0.3730497360229492 -0.8006963729858398 0.15594002604484558 -0.8736944794654846 -0.4608044922351837
0.1767948567867279 0.39426591992378235 -0.75347900390625 -0.4375118911266327 -0.8379489779472351 0.3262282609939575
0.18641138076782227 0.38071805238723755 -0.7818959355354309 -0.5279173254966736 -0.8015947341918945 0.28062281012535095
0.15799443423748016 0.38593292236328125 -0.7915124893188477 0.1334986835718155 -0.9290919899940491 0.34491464495658875
0.16761095821857452 0.37476253509521484 -0.8199294209480286 -0.2650589048862457 -0.8853283524513245 0.382017582654953
0.3104521632194519 0.4106355905532837 -0.6810601949691772 -0.27858227491378784 -0.09207416325807571 0.9559885859489441
0.24237996339797974 0.40067058801651 -0.5729281902313232 -0.06563839316368103 0.9715840220451355 0.22741180658340454
0.2519964873790741 0.41123682260513306 -0.6013451218605042 0.17172373831272125 0.9468759298324585 0.2719135284423828
0.2790087163448334 0.4185841679573059 -0.6894575357437134 -0.27858227491378784 -0.09207416325807571 0.9559885859489441
0.2802557349205017 0.4179685115814209 -0.6891534328460693 -0.27858227491378784 -0.09207416325807571 0.9559885859489441
0.21396303176879883 0.3968772888183594 -0.58254474401474 -0.13598550856113434 0.9906980395317078 0.005038578063249588
0.2235795557498932 0.40740448236465454 -0.6109616756439209 -0.4532943069934845 0.875313401222229 0.168377086520195
0.2501492500305176 0.4218231439590454 -0.6975554823875427 -0.27858227491378784 -0.09207416325807571 0.9559885859489441
0.2512989044189453 0.4249706268310547 -0.6969172954559326 -0.27858227491378784 -0.09207416325807571 0.9559885859489441
0.22283314168453217 0.4129900336265564 -0.7063663005828857 -0.27858227491378784 -0.09207416325807571 0.9559885859489441
0.1949942708015442 0.4243656396865845 -0.713383138179779 -0.27858227491378784 -0.09207416325807571 0.9559885859489441
0.1483778953552246 0.39640986919403076 -0.763095498085022 -0.30664902925491333 -0.6709137558937073 0.6751601099967957
0.2471417784690857 0.1858403980731964 -0.39982160925865173 0.06070377677679062 -0.9739906787872314 -0.21830523014068604
0.2582525610923767 0.1858403980731964 -0.43265408277511597 -0.42391452193260193 -0.7931782007217407 -0.4372239410877228
0.21819448471069336 0.1858403980731964 -0.40787094831466675 0.130412757396698 -0.9127265214920044 -0.3871988356113434
0.24963217973709106 0.1858403980731964 -0.5007696747779846 -0.6610077619552612 0.7333645224571228 0.15888789296150208
0.19275730848312378 0.1858403980731964 -0.4262927174568176 0.30357488989830017 -0.8633836507797241 -0.40300241112709045
0.22514425218105316 0.1858403980731964 -0.5219964981079102 -0.3114648759365082 0.6584321856498718 0.6851690411567688
0.26613280177116394 0.2158403992652893 -0.455940306186676 -0.2684861719608307 0.00014582931180484593 -0.9632834792137146
0.2860625088214874 0.2158403992652893 -0.5148327946662903 -0.7792590856552124 0.020765990018844604 0.6263577938079834
0.23108473420143127 0.2158403992652893 -0.44596177339553833 0.01585531048476696 -0.7405878901481628 -0.6717724800109863
0.2604561746120453 0.2158403992652893 -0.53275465965271 -0.46210914850234985 0.5556954741477966 0.6911277174949646
0.20018865168094635 0.2158403992652893 -0.4482523798942566 0.3091904819011688 -0.6691460013389587 -0.6757550239562988
0.23708394169807434 0.2158403992652893 -0.5572783350944519 -0.7241420745849609 0.6874337792396545 -0.05525420233607292
0.28368517756462097 0.25291818380355835 -0.5078077912330627 7.323887274424123e-08 1.0 -1.1605116014834493e-06
0.29744136333465576 0.25291815400123596 -0.5484574437141418 7.323887274424123e-08 1.0 -1.1605116014834493e-06
0.23685798048973083 0.2529182434082031 -0.46302175521850586 7.323887274424123e-08 1.0 -1.1605116014834493e-06
0.2609090805053711 0.25291818380355835 -0.5340930223464966 7.323887274424123e-08 1.0 -1.1605116014834493e-06
0.20788682997226715 0.2529182434082031 -0.471000611782074 7.323887274424123e-08 1.0 -1.1605116014834493e-06
0.13890692591667175 0.2529183626174927 -0.3607531189918518 7.323887274424123e-08 1.0 -1.1605116014834493e-06
0.11688411235809326 0.2529183626174927 -0.3892643451690674 7.323887274424123e-08 1.0 -1.1605116014834493e-06
0.08065346628427505 0.2529183626174927 -0.3757912814617157 7.323887274424123e-08 1.0 -1.1605116014834493e-06
0.23323793709278107 0.2529183626174927 -0.3587356209754944 7.323887274424123e-08 1.0 -1.1605116014834493e-06
0.2800236940383911 0.25291821360588074 -0.4969879984855652 7.323887274424123e-08 1.0 -1.1605116014834493e-06
0.2048017978668213 0.2529183626174927 -0.3682953715324402 7.323887274424123e-08 1.0 -1.1605116014834493e-06
0.23767393827438354 0.2529182434082031 -0.46543288230895996 7.323887274424123e-08 1.0 -1.1605116014834493e-06
0.17623066902160645 0.2529183626174927 -0.37745627760887146 7.323887274424123e-08 1.0 -1.1605116014834493e-06
0.20817208290100098 0.2529182434082031 -0.4718434810638428 7.323887274424123e-08 1.0 -1.1605116014834493e-06
0.16753347218036652 0.2529182732105255 -0.44534480571746826 7.323887274424123e-08 1.0 -1.1605116014834493e-06
0.20929360389709473 0.2529181241989136 -0.5687464475631714 7.323887274424123e-08 1.0 -1.1605116014834493e-06
0.23691821098327637 0.2529183626174927 -0.3696107864379883 7.323887274424123e-08 1.0 -1.1605116014834493e-06
0.2766912877559662 0.25291821360588074 -0.4871406555175781 7.323887274424123e-08 1.0 -1.1605116014834493e-06
0.20870235562324524 0.2529183626174927 -0.3798215687274933 7.323887274424123e-08 1.0 -1.1605116014834493e-06
0.24734961986541748 0.25291821360588074 -0.4940246343612671 7.323887274424123e-08 1.0 -1.1605116014834493e-06
0.18039654195308685 0.2529183328151703 -0.3897664546966553 7.323887274424123e-08 1.0 -1.1605116014834493e-06
0.21817559003829956 0.25291821360588074 -0.5014039278030396 7.323887274424123e-08 1.0 -1.1605116014834493e-06
0.177202045917511 0.2529182434082031 -0.47391557693481445 7.323887274424123e-08 1.0 -1.1605116014834493e-06
0.19040311872959137 0.25291818380355835 -0.5129249095916748 7.323887274424123e-08 1.0 -1.1605116014834493e-06
0.24214228987693787 0.3358404040336609 -0.3850480914115906 -0.29233789443969727 0.4620996415615082 0.8372589349746704
0.2801513075828552 0.3358404040336609 -0.4973651170730591 0.31679558753967285 -0.40039727091789246 -0.8598387241363525
0.21381783485412598 0.3358404040336609 -0.3949378728866577 -0.28737813234329224 0.4594391882419586 0.8404341340065002
0.2495473325252533 0.3358404040336609 -0.5005189776420593 0.25812363624572754 -0.3652844727039337 -0.8943933248519897
0.1853483021259308 0.3358404040336609 -0.40439897775650024 -0.6934781074523926 0.4006699025630951 0.5987919569015503
0.22301524877548218 0.3358404040336609 -0.5157052278518677 0.2143222540616989 -0.31224700808525085 -0.9255094528198242
0.1810171902179718 0.3358404040336609 -0.48518937826156616 -0.924327552318573 0.30517807602882385 0.22909562289714813
0.18867799639701843 0.3358404040336609 -0.5078271627426147 -0.48692792654037476 -0.18706272542476654 -0.8531756401062012
0.24713081121444702 0.3658403754234314 -0.3997892141342163 -0.29087772965431213 0.45476311445236206 0.8417723774909973
0.2841680943965912 0.3658403754234314 -0.5092347860336304 0.3383307456970215 -0.3680517077445984 -0.8660659790039062
